80.000000	65.000000	45.000000	0.553129	0.824338	-0.120480
80.000000	65.000000	50.000000	0.398282	0.913551	0.082441
80.000000	65.000000	55.000000	-0.676427	0.723872	-0.135850
80.000000	65.000000	60.000000	-0.311220	0.946201	0.088579
80.000000	65.000000	65.000000	0.378579	0.096470	0.920528
80.000000	65.000000	70.000000	-0.129842	0.455963	-0.880476
80.000000	65.000000	75.000000	0.720540	0.325489	-0.612274
80.000000	70.000000	0.000000	-0.339650	-0.609875	0.716024
80.000000	70.000000	5.000000	-0.971260	-0.204590	0.121646
80.000000	70.000000	10.000000	0.300212	-0.003660	0.953866
80.000000	70.000000	15.000000	0.861961	-0.283053	-0.420599
80.000000	70.000000	20.000000	-0.345081	0.407317	-0.845584
80.000000	70.000000	25.000000	-0.042898	-0.070758	-0.996571
80.000000	70.000000	30.000000	0.915105	-0.345179	0.208408
80.000000	70.000000	35.000000	-0.523928	-0.127827	0.842116
80.000000	70.000000	40.000000	0.333461	0.343063	0.878130
80.000000	70.000000	45.000000	-0.971792	-0.069927	-0.225236
80.000000	70.000000	50.000000	-0.000931	0.847802	0.530311
80.000000	70.000000	55.000000	0.166849	-0.543803	-0.822460
80.000000	70.000000	60.000000	0.012109	-0.778822	0.627128
80.000000	70.000000	65.000000	0.115739	-0.990530	-0.073851
80.000000	70.000000	70.000000	0.202497	-0.222576	-0.953654
80.000000	70.000000	75.000000	0.141601	0.737647	-0.660171
80.000000	75.000000	0.000000	-0.266287	-0.093090	0.959388
80.000000	75.000000	5.000000	0.703428	0.696779	0.140315
80.000000	75.000000	10.000000	-0.868506	-0.120027	-0.480926
80.000000	75.000000	15.000000	0.238732	-0.959302	0.150818
80.000000	75.000000	20.000000	-0.074929	0.960708	-0.267254
80.000000	75.000000	25.000000	0.893367	-0.285260	0.347163
80.000000	75.000000	30.000000	0.217573	0.164280	-0.962120
80.000000	75.000000	35.000000	0.328577	0.012491	0.944395
80.000000	75.000000	40.000000	0.751355	-0.598449	-0.278072
80.000000	75.000000	45.000000	0.739820	-0.583497	-0.334959
80.000000	75.000000	50.000000	0.560088	0.824632	0.079269
80.000000	75.000000	55.000000	0.335990	0.648585	-0.682970
80.000000	75.000000	60.000000	-0.423884	0.715280	-0.555605
80.000000	75.000000	65.000000	-0.168475	-0.306895	0.936713
80.000000	75.000000	70.000000	0.554784	0.216542	0.803321
80.000000	75.000000	75.000000	-0.499983	0.470365	0.727168
80.000000	80.000000	0.000000	-0.754261	0.518965	-0.402202
80.000000	80.000000	5.000000	0.911864	0.319827	0.257323
80.000000	80.000000	10.000000	0.184248	-0.218870	0.958201
80.000000	80.000000	15.000000	-0.658877	-0.369250	-0.655389
80.000000	80.000000	20.000000	0.720754	0.204192	0.662434
80.000000	80.000000	25.000000	-0.451797	0.573621	0.683256
80.000000	80.000000	30.000000	0.627300	0.684095	0.372168
80.000000	80.000000	35.000000	0.133710	0.762790	0.632671
80.000000	80.000000	40.000000	0.140410	-0.916192	0.375336
80.000000	80.000000	45.000000	0.338618	-0.330367	0.881020
80.000000	80.000000	50.000000	-0.994573	-0.041786	-0.095278
80.000000	80.000000	55.000000	0.970221	0.240101	-0.031991
80.000000	80.000000	60.000000	-0.877818	-0.326570	0.350410
80.000000	80.000000	65.000000	0.950081	0.273767	0.149660
80.000000	80.000000	70.000000	-0.199621	-0.069891	-0.977378
80.000000	80.000000	75.000000	0.107986	0.920923	0.374486
80.000000	80.000000	80.000000	-0.501759	0.860104	0.091967
80.000000	85.000000	0.000000	0.121236	0.872683	-0.472998
80.000000	85.000000	5.000000	0.473909	-0.852936	-0.218883
80.000000	85.000000	10.000000	0.635155	-0.579991	0.510086
80.000000	85.000000	15.000000	-0.564891	-0.735495	-0.374093
80.000000	85.000000	20.000000	-0.383463	0.622502	-0.682237
80.000000	85.000000	25.000000	-0.876513	0.471155	-0.098682
80.000000	85.000000	30.000000	-0.194780	0.575566	0.794220
80.000000	85.000000	35.000000	-0.800740	-0.153833	-0.578921
80.000000	85.000000	40.000000	-0.910682	-0.078891	-0.405505
80.000000	85.000000	45.000000	-0.732408	0.674920	-0.089784
80.000000	85.000000	50.000000	-0.997441	-0.055149	-0.045498
80.000000	85.000000	55.000000	0.208313	0.976578	-0.053866
80.000000	85.000000	60.000000	0.655781	-0.025770	0.754511
80.000000	85.000000	65.000000	-0.940520	-0.283019	-0.187944
80.000000	85.000000	70.000000	0.423034	-0.385100	-0.820208
80.000000	85.000000	75.000000	0.724763	0.579142	0.373247
80.000000	90.000000	0.000000	-0.064284	0.466741	-0.882055
80.000000	90.000000	5.000000	0.406164	-0.780937	0.474519
80.000000	90.000000	10.000000	-0.256250	-0.364424	-0.895283
80.000000	90.000000	15.000000	-0.228781	0.956403	-0.181528
80.000000	90.000000	20.000000	0.718500	-0.632823	-0.288605
80.000000	90.000000	25.000000	0.830455	-0.352891	0.431059
80.000000	90.000000	30.000000	-0.642709	-0.537121	0.546285
80.000000	90.000000	35.000000	0.591199	-0.511736	0.623386
80.000000	90.000000	40.000000	-0.261686	-0.214039	-0.941121
80.000000	90.000000	45.000000	0.737757	0.502201	-0.451120
80.000000	90.000000	50.000000	-0.563116	0.364053	-0.741867
80.000000	90.000000	55.000000	-0.420573	0.879705	0.221896
80.000000	90.000000	60.000000	-0.794371	-0.601408	-0.085339
80.000000	90.000000	65.000000	0.751407	-0.657358	0.057156
80.000000	90.000000	70.000000	0.851662	0.396929	-0.342227
80.000000	90.000000	75.000000	-0.838810	-0.467539	-0.278936
80.000000	95.000000	0.000000	0.046491	0.998434	-0.031122
80.000000	95.000000	5.000000	-0.624538	0.742886	0.240984
80.000000	95.000000	10.000000	0.326365	0.167817	0.930228
80.000000	95.000000	15.000000	-0.616451	-0.787026	-0.024054
80.000000	95.000000	20.000000	0.930146	-0.298229	-0.214215
80.000000	95.000000	25.000000	0.150603	0.097304	-0.983794
80.000000	95.000000	30.000000	-0.619581	-0.774527	0.127390
80.000000	95.000000	35.000000	-0.257265	0.253436	0.932515
80.000000	95.000000	40.000000	0.706228	-0.032702	0.707229
80.000000	95.000000	45.000000	0.232556	0.422356	0.876090
80.000000	95.000000	50.000000	0.508073	-0.294657	0.809345
80.000000	95.000000	55.000000	0.464774	0.865539	-0.186619
80.000000	95.000000	60.000000	0.444223	-0.571131	-0.690272
80.000000	95.000000	65.000000	0.187753	-0.684941	0.703992
80.000000	95.000000	70.000000	0.247742	0.483336	-0.839649
80.000000	95.000000	75.000000	0.408289	0.172445	0.896417
80.000000	100.000000	0.000000	-0.129472	0.918016	-0.374812
80.000000	100.000000	5.000000	-0.135883	0.779022	-0.612095
80.000000	100.000000	10.000000	-0.005108	-0.931100	0.364729
80.000000	100.000000	15.000000	0.078901	-0.250319	0.964943
80.000000	100.000000	20.000000	0.639049	0.489306	0.593461
80.000000	100.000000	25.000000	0.270579	-0.956503	0.109039
80.000000	100.000000	30.000000	0.436151	-0.008867	0.899830
80.000000	100.000000	35.000000	-0.115811	-0.679413	0.724559
80.000000	100.000000	40.000000	0.132655	0.111366	-0.984886
80.000000	100.000000	45.000000	-0.533070	-0.015208	0.845934
80.000000	100.000000	50.000000	0.856043	0.438437	-0.273795
80.000000	100.000000	55.000000	0.904599	0.417072	0.088045
80.000000	100.000000	60.000000	0.710740	0.673695	-0.202444
80.000000	100.000000	65.000000	0.647496	-0.743094	0.168997
80.000000	100.000000	70.000000	0.978279	-0.172846	-0.114433
80.000000	100.000000	75.000000	-0.857195	-0.485943	-0.170516
80.000000	105.000000	0.000000	-0.404486	-0.907457	-0.113638
80.000000	105.000000	5.000000	0.110315	0.843193	-0.526171
80.000000	105.000000	10.000000	-0.616488	0.771763	0.155964
80.000000	105.000000	15.000000	-0.334591	-0.442024	0.832264
80.000000	105.000000	20.000000	-0.770094	0.420153	0.480028
80.000000	105.000000	25.000000	-0.998528	0.030514	0.044849
80.000000	105.000000	30.000000	-0.792859	-0.380725	0.475840
80.000000	105.000000	35.000000	0.396432	0.087878	-0.913849
80.000000	105.000000	40.000000	0.401554	0.852999	0.333388
80.000000	105.000000	45.000000	0.901919	0.334049	-0.273776
80.000000	105.000000	50.000000	0.157455	-0.841152	0.517370
80.000000	105.000000	55.000000	0.303693	0.845773	0.438678
80.000000	105.000000	60.000000	-0.278335	0.776992	-0.564635
80.000000	105.000000	65.000000	0.843811	-0.371163	0.387584
80.000000	105.000000	70.000000	0.933037	-0.113230	-0.341497
80.000000	105.000000	75.000000	-0.272831	-0.162322	-0.948269
80.000000	110.000000	0.000000	-0.529714	-0.174021	-0.830132
80.000000	110.000000	5.000000	-0.998158	0.060450	0.005167
80.000000	110.000000	10.000000	0.133382	-0.960120	0.245723
80.000000	110.000000	15.000000	-0.076343	0.865523	-0.495017
80.000000	110.000000	20.000000	0.405694	0.766852	0.497343
80.000000	110.000000	25.000000	-0.411466	-0.527332	-0.743382
80.000000	110.000000	30.000000	0.268135	-0.283376	-0.920762
80.000000	110.000000	35.000000	0.409284	0.222886	-0.884765
80.000000	110.000000	40.000000	-0.454181	0.428913	0.780867
80.000000	110.000000	45.000000	-0.870853	-0.287404	-0.398765
80.000000	110.000000	50.000000	-0.202185	-0.689734	-0.695261
80.000000	110.000000	55.000000	-0.340293	-0.281344	0.897244
80.000000	110.000000	60.000000	-0.207358	-0.214734	-0.954407
80.000000	110.000000	65.000000	-0.155015	0.810803	-0.564420
80.000000	110.000000	70.000000	-0.454304	-0.385550	-0.803093
80.000000	115.000000	0.000000	-0.221421	0.243653	-0.944249
80.000000	115.000000	5.000000	-0.499679	0.783182	0.370062
80.000000	115.000000	10.000000	-0.356379	0.467233	0.809127
80.000000	115.000000	15.000000	-0.968458	0.229523	-0.097001
80.000000	115.000000	20.000000	-0.882968	0.445253	0.148722
80.000000	115.000000	25.000000	0.784796	-0.475647	-0.397310
80.000000	115.000000	30.000000	-0.567589	-0.635337	-0.523631
80.000000	115.000000	35.000000	-0.420631	-0.836425	0.351373
80.000000	115.000000	40.000000	0.945414	0.050059	-0.322004
80.000000	115.000000	45.000000	0.554075	0.825867	-0.104616
80.000000	115.000000	50.000000	0.408989	-0.765658	0.496483
80.000000	115.000000	55.000000	-0.378420	-0.839317	0.390314
80.000000	115.000000	60.000000	0.321635	-0.137623	0.936809
80.000000	115.000000	65.000000	-0.253631	-0.724188	0.641266
80.000000	115.000000	70.000000	-0.007634	-0.815974	0.578038
80.000000	120.000000	0.000000	-0.687289	-0.655163	0.313680
80.000000	120.000000	5.000000	-0.389963	-0.747543	0.537688
80.000000	120.000000	10.000000	-0.850641	0.322736	-0.415031
80.000000	120.000000	15.000000	-0.128787	0.964666	0.229854
80.000000	120.000000	20.000000	-0.834643	0.474602	0.279506
80.000000	120.000000	25.000000	-0.501834	0.385905	0.774106
80.000000	120.000000	30.000000	0.243466	-0.960361	0.135760
80.000000	120.000000	35.000000	-0.454937	-0.761274	0.462054
80.000000	120.000000	40.000000	-0.944216	0.294981	0.146433
80.000000	120.000000	45.000000	-0.985443	0.115527	-0.124723
80.000000	120.000000	50.000000	-0.690691	-0.212515	0.691218
80.000000	120.000000	55.000000	-0.771585	-0.464578	0.434539
80.000000	120.000000	60.000000	0.607006	-0.542449	0.580769
80.000000	120.000000	65.000000	-0.869583	0.054388	-0.490783
80.000000	125.000000	0.000000	0.886694	0.456404	0.073953
80.000000	125.000000	5.000000	0.776219	0.327606	-0.538664
80.000000	125.000000	10.000000	0.956881	-0.267852	0.112399
80.000000	125.000000	15.000000	0.132220	-0.596805	0.791418
80.000000	125.000000	20.000000	-0.442936	0.802491	-0.399770
80.000000	125.000000	25.000000	0.817295	0.206600	0.537909
80.000000	125.000000	30.000000	0.038492	0.893854	-0.446703
80.000000	125.000000	35.000000	0.016630	-0.789116	-0.614019
80.000000	125.000000	40.000000	-0.359818	-0.573740	0.735767
80.000000	125.000000	45.000000	-0.280847	0.435006	-0.855509
80.000000	125.000000	50.000000	-0.002313	0.399728	0.916631
80.000000	125.000000	55.000000	-0.638886	0.544645	0.543311
80.000000	125.000000	60.000000	0.134830	0.230543	-0.963676
80.000000	125.000000	65.000000	0.382683	0.019551	0.923673
80.000000	130.000000	0.000000	-0.059265	-0.210770	-0.975737
80.000000	130.000000	5.000000	-0.260648	-0.499668	0.826072
80.000000	130.000000	10.000000	-0.850134	0.329761	0.410524
80.000000	130.000000	15.000000	-0.847174	-0.110312	-0.519738
80.000000	130.000000	20.000000	0.980997	-0.065808	0.182520
80.000000	130.000000	25.000000	0.301143	0.881985	-0.362511
80.000000	130.000000	30.000000	-0.523902	0.832136	0.181870
80.000000	130.000000	35.000000	0.733540	0.657079	-0.173687
80.000000	130.000000	40.000000	0.543907	0.378187	-0.749093
80.000000	130.000000	45.000000	-0.095743	-0.752126	0.652027
80.000000	130.000000	50.000000	0.758807	-0.581482	0.293413
80.000000	130.000000	55.000000	0.498679	0.404806	-0.766454
80.000000	130.000000	60.000000	0.217234	0.458378	0.861800
80.000000	135.000000	0.000000	0.969865	-0.092013	0.225600
80.000000	135.000000	5.000000	-0.688358	-0.491990	-0.533019
80.000000	135.000000	10.000000	0.688342	0.725310	0.010535
80.000000	135.000000	15.000000	0.530159	0.563250	-0.633783
80.000000	135.000000	20.000000	0.356116	0.789201	0.500343
80.000000	135.000000	25.000000	0.064044	0.624764	0.778182
80.000000	135.000000	30.000000	-0.191361	-0.515000	-0.835557
80.000000	135.000000	35.000000	0.326304	0.282654	0.902016
80.000000	135.000000	40.000000	0.371622	0.630240	-0.681685
80.000000	135.000000	45.000000	-0.231794	-0.364270	0.901986
80.000000	135.000000	50.000000	0.616744	-0.080276	-0.783060
80.000000	135.000000	55.000000	0.304527	0.539820	-0.784766
80.000000	140.000000	0.000000	0.792044	-0.610031	0.022970
80.000000	140.000000	5.000000	-0.632917	0.519486	0.574065
80.000000	140.000000	10.000000	-0.031399	0.126558	0.991462
80.000000	140.000000	15.000000	0.082158	0.530150	0.843914
80.000000	140.000000	20.000000	-0.843194	-0.264463	0.468064
80.000000	140.000000	25.000000	-0.520660	-0.830731	0.196974
80.000000	140.000000	30.000000	-0.707708	0.009378	-0.706443
80.000000	140.000000	35.000000	0.923641	0.191515	0.331979
80.000000	140.000000	40.000000	0.032251	0.887219	-0.460220
80.000000	140.000000	45.000000	0.034772	-0.775878	0.629924
80.000000	140.000000	50.000000	0.037845	-0.993264	-0.109518
80.000000	145.000000	0.000000	-0.955825	-0.250422	0.153910
80.000000	145.000000	5.000000	0.425048	0.243677	-0.871754
80.000000	145.000000	10.000000	0.508135	0.839357	-0.193077
80.000000	145.000000	15.000000	-0.058755	0.705713	-0.706057
80.000000	145.000000	20.000000	-0.987071	-0.046109	-0.153509
80.000000	145.000000	25.000000	0.900599	0.375256	0.219329
80.000000	145.000000	30.000000	-0.269587	0.464688	0.843438
80.000000	145.000000	35.000000	-0.957850	-0.224547	-0.179169
80.000000	145.000000	40.000000	0.812554	-0.146423	0.564195
80.000000	145.000000	45.000000	-0.493437	0.869137	-0.033462
80.000000	150.000000	0.000000	0.537423	-0.016662	0.843148
80.000000	150.000000	5.000000	0.563630	0.623516	0.541801
80.000000	150.000000	10.000000	0.779654	0.269057	-0.565463
80.000000	150.000000	15.000000	-0.841658	0.394089	-0.369195
80.000000	150.000000	20.000000	-0.572104	-0.818109	-0.058267
80.000000	150.000000	25.000000	0.772601	0.611227	0.171722
80.000000	150.000000	30.000000	0.247856	-0.432745	0.866775
80.000000	150.000000	35.000000	0.695017	0.081461	0.714364
80.000000	155.000000	0.000000	0.716131	0.486147	0.500817
80.000000	155.000000	5.000000	-0.784916	-0.149015	-0.601417
80.000000	155.000000	10.000000	-0.430527	-0.898925	-0.081115
80.000000	155.000000	15.000000	-0.462743	-0.871640	-0.161594
80.000000	155.000000	20.000000	0.890439	-0.074617	0.448944
80.000000	155.000000	25.000000	-0.975049	0.216697	-0.048190
80.000000	160.000000	0.000000	-0.560502	-0.361977	-0.744856
85.000000	5.000000	0.000000	-0.227881	-0.652037	0.723131
85.000000	5.000000	5.000000	0.785544	0.486270	-0.382705
85.000000	5.000000	10.000000	-0.910214	-0.380554	-0.163367
85.000000	5.000000	15.000000	-0.470956	0.856921	-0.209492
85.000000	5.000000	20.000000	-0.062715	-0.814353	0.576971
85.000000	5.000000	25.000000	-0.914593	0.265577	-0.304940
85.000000	10.000000	0.000000	0.443754	0.215170	-0.869933
85.000000	10.000000	5.000000	0.290771	-0.801723	-0.522199
85.000000	10.000000	10.000000	0.142557	-0.988673	-0.046932
85.000000	10.000000	15.000000	0.841304	0.531362	-0.099308
85.000000	10.000000	20.000000	0.917566	-0.370556	0.144087
85.000000	10.000000	25.000000	-0.878900	0.017191	-0.476696
85.000000	10.000000	30.000000	0.602840	0.096181	0.792044
85.000000	10.000000	35.000000	0.073049	0.865067	-0.496310
85.000000	15.000000	0.000000	0.808963	-0.585114	-0.056745
85.000000	15.000000	5.000000	0.996544	0.069177	-0.045978
85.000000	15.000000	10.000000	-0.617789	0.782654	-0.076087
85.000000	15.000000	15.000000	-0.261844	-0.683902	0.680967
85.000000	15.000000	20.000000	-0.127042	-0.663343	0.737453
85.000000	15.000000	25.000000	0.790648	-0.611902	0.021282
85.000000	15.000000	30.000000	-0.455313	0.612369	0.646293
85.000000	15.000000	35.000000	-0.276048	-0.585279	-0.762395
85.000000	15.000000	40.000000	-0.009446	-0.794853	-0.606728
85.000000	15.000000	45.000000	-0.664072	-0.696237	0.272511
85.000000	20.000000	0.000000	-0.704775	0.433227	-0.561789
85.000000	20.000000	5.000000	-0.704558	0.367324	0.607183
85.000000	20.000000	10.000000	-0.444407	-0.562758	-0.696998
85.000000	20.000000	15.000000	-0.036704	0.845711	0.532378
85.000000	20.000000	20.000000	0.069220	-0.969684	0.234354
85.000000	20.000000	25.000000	0.832011	-0.151333	0.533718
85.000000	20.000000	30.000000	0.205531	0.937403	-0.281128
85.000000	20.000000	35.000000	-0.333684	-0.942610	-0.011919
85.000000	20.000000	40.000000	-0.773298	-0.214203	0.596764
85.000000	20.000000	45.000000	0.381237	0.924413	0.010875
85.000000	20.000000	50.000000	-0.563953	-0.466974	-0.681096
85.000000	25.000000	0.000000	0.293733	0.897822	-0.328081
85.000000	25.000000	5.000000	-0.773635	0.237130	-0.587587
85.000000	25.000000	10.000000	0.031525	-0.727182	-0.685721
85.000000	25.000000	15.000000	-0.414167	-0.427332	-0.803650
85.000000	25.000000	20.000000	-0.324668	0.399952	-0.857105
85.000000	25.000000	25.000000	0.600905	-0.432542	-0.672176
85.000000	25.000000	30.000000	-0.258861	0.505227	-0.823247
85.000000	25.000000	35.000000	0.710064	-0.025173	0.703687
85.000000	25.000000	40.000000	-0.590239	-0.777339	-0.217629
85.000000	25.000000	45.000000	-0.990051	0.024964	0.138480
85.000000	25.000000	50.000000	0.826269	0.225474	-0.516180
85.000000	25.000000	55.000000	-0.471514	-0.657243	-0.587968
85.000000	30.000000	0.000000	0.387868	0.913473	-0.122982
85.000000	30.000000	5.000000	-0.088876	-0.539254	0.837440
85.000000	30.000000	10.000000	-0.257487	-0.965735	-0.032494
85.000000	30.000000	15.000000	0.896459	-0.014123	-0.442902
85.000000	30.000000	20.000000	0.178378	0.880152	-0.439903
85.000000	30.000000	25.000000	-0.908580	-0.417633	0.008084
85.000000	30.000000	30.000000	0.659332	-0.542271	-0.520791
85.000000	30.000000	35.000000	-0.179859	-0.769108	0.613289
85.000000	30.000000	40.000000	0.426975	-0.691911	-0.582196
85.000000	30.000000	45.000000	0.722819	-0.328930	-0.607732
85.000000	30.000000	50.000000	-0.582978	-0.671834	-0.456919
85.000000	30.000000	55.000000	0.110237	-0.051627	-0.992564
85.000000	30.000000	60.000000	0.787636	-0.529861	0.314448
85.000000	35.000000	0.000000	0.459444	-0.020327	-0.887974
85.000000	35.000000	5.000000	-0.355043	0.833168	0.423999
85.000000	35.000000	10.000000	0.306834	-0.005679	0.951746
85.000000	35.000000	15.000000	0.371574	0.906925	0.198543
85.000000	35.000000	20.000000	0.847198	-0.205774	-0.489808
85.000000	35.000000	25.000000	0.724880	0.648187	-0.233243
85.000000	35.000000	30.000000	0.788133	0.154028	0.595921
85.000000	35.000000	35.000000	0.950117	0.280010	-0.137380
85.000000	35.000000	40.000000	0.319828	0.818926	0.476519
85.000000	35.000000	45.000000	0.234923	0.737554	0.633108
85.000000	35.000000	50.000000	0.480487	0.735202	-0.478131
85.000000	35.000000	55.000000	-0.543696	-0.838165	0.043288
85.000000	35.000000	60.000000	0.280803	-0.889841	-0.359629
85.000000	35.000000	65.000000	0.485184	-0.508545	-0.711322
85.000000	40.000000	0.000000	-0.712220	0.148827	0.685998
85.000000	40.000000	5.000000	-0.212866	0.749968	0.626288
85.000000	40.000000	10.000000	-0.453185	0.875168	0.169426
85.000000	40.000000	15.000000	0.230527	0.895505	-0.380695
85.000000	40.000000	20.000000	0.919445	0.175433	-0.351916
85.000000	40.000000	25.000000	0.760238	0.015466	-0.649460
85.000000	40.000000	30.000000	0.144638	-0.367794	0.918590
85.000000	40.000000	35.000000	0.151203	-0.244001	-0.957915
85.000000	40.000000	40.000000	0.959696	0.280989	-0.005351
85.000000	40.000000	45.000000	-0.516648	-0.246738	-0.819875
85.000000	40.000000	50.000000	0.484251	0.860717	-0.157059
85.000000	40.000000	55.000000	0.977939	-0.191936	-0.082434
85.000000	40.000000	60.000000	0.263017	-0.443534	-0.856796
85.000000	40.000000	65.000000	-0.064006	0.576779	0.814389
85.000000	45.000000	0.000000	0.852020	0.309843	-0.421970
85.000000	45.000000	5.000000	-0.935608	-0.205853	0.286814
85.000000	45.000000	10.000000	0.886181	0.402312	0.229844
85.000000	45.000000	15.000000	0.901759	-0.161677	0.400863
85.000000	45.000000	20.000000	0.223542	0.972893	0.059232
85.000000	45.000000	25.000000	-0.993584	0.079977	-0.079971
85.000000	45.000000	30.000000	0.672705	-0.492409	-0.552269
85.000000	45.000000	35.000000	0.672434	0.366939	0.642796
85.000000	45.000000	40.000000	0.961422	0.273063	-0.033248
85.000000	45.000000	45.000000	0.822137	-0.544615	-0.165787
85.000000	45.000000	50.000000	0.822158	0.246695	0.513029
85.000000	45.000000	55.000000	0.320009	-0.619330	0.716955
85.000000	45.000000	60.000000	0.109237	0.728844	0.675910
85.000000	45.000000	65.000000	0.079380	0.963908	-0.254126
85.000000	45.000000	70.000000	0.545975	0.207465	0.811708
85.000000	50.000000	0.000000	0.767573	0.544205	-0.338635
85.000000	50.000000	5.000000	-0.547292	-0.339735	-0.764887
85.000000	50.000000	10.000000	0.384440	-0.922758	-0.026900
85.000000	50.000000	15.000000	0.636371	0.584855	0.502969
85.000000	50.000000	20.000000	-0.360134	0.764621	-0.534470
85.000000	50.000000	25.000000	0.143383	-0.048392	0.988484
85.000000	50.000000	30.000000	-0.634709	0.772663	0.011684
85.000000	50.000000	35.000000	-0.951714	0.123952	0.280850
85.000000	50.000000	40.000000	-0.428529	-0.898907	0.091265
85.000000	50.000000	45.000000	-0.073549	-0.981957	-0.174218
85.000000	50.000000	50.000000	0.444494	-0.424889	-0.788603
85.000000	50.000000	55.000000	0.919571	-0.163600	0.357244
85.000000	50.000000	60.000000	-0.867753	0.476312	0.141889
85.000000	50.000000	65.000000	0.682273	0.513056	0.520843
85.000000	50.000000	70.000000	0.264413	0.633948	-0.726770
85.000000	55.000000	0.000000	0.036303	-0.732132	0.680195
85.000000	55.000000	5.000000	0.501873	0.296453	0.812551
85.000000	55.000000	10.000000	0.702013	0.696945	-0.146442
85.000000	55.000000	15.000000	0.089656	-0.991989	0.088994
85.000000	55.000000	20.000000	0.914695	-0.272037	-0.298880
85.000000	55.000000	25.000000	-0.242777	-0.165090	0.955931
85.000000	55.000000	30.000000	0.584694	0.802786	0.116908
85.000000	55.000000	35.000000	-0.984895	0.032617	0.170052
85.000000	55.000000	40.000000	0.391482	0.060892	-0.918169
85.000000	55.000000	45.000000	0.838160	0.484660	0.250184
85.000000	55.000000	50.000000	0.260955	-0.956332	0.131651
85.000000	55.000000	55.000000	0.771056	-0.171933	0.613116
85.000000	55.000000	60.000000	-0.170443	-0.774347	-0.609373
85.000000	55.000000	65.000000	-0.598081	0.418822	0.683292
85.000000	55.000000	70.000000	-0.026792	0.842786	0.537581
85.000000	55.000000	75.000000	-0.574324	-0.425836	-0.699153
85.000000	60.000000	0.000000	0.971136	-0.195277	0.136976
85.000000	60.000000	5.000000	0.254874	-0.871058	0.419878
85.000000	60.000000	10.000000	0.479176	0.291897	0.827760
85.000000	60.000000	15.000000	0.294249	-0.479883	0.826517
85.000000	60.000000	20.000000	-0.297682	0.925737	-0.233230
85.000000	60.000000	25.000000	0.501963	0.112458	0.857546
85.000000	60.000000	30.000000	-0.697750	-0.694285	0.176387
85.000000	60.000000	35.000000	-0.761828	0.009997	0.647703
85.000000	60.000000	40.000000	-0.846173	-0.531413	-0.039892
85.000000	60.000000	45.000000	-0.568710	0.801937	0.182935
85.000000	60.000000	50.000000	0.689134	0.378906	0.617677
85.000000	60.000000	55.000000	0.766401	-0.564250	0.307005
85.000000	60.000000	60.000000	-0.547581	0.827703	-0.122731
85.000000	60.000000	65.000000	0.580576	-0.520382	-0.626206
85.000000	60.000000	70.000000	0.809095	-0.318513	-0.493877
85.000000	60.000000	75.000000	0.689565	0.497357	0.526437
85.000000	65.000000	0.000000	-0.222965	-0.563578	-0.795404
85.000000	65.000000	5.000000	-0.745531	-0.416124	0.520600
85.000000	65.000000	10.000000	-0.078570	0.099768	0.991904
85.000000	65.000000	15.000000	-0.168075	0.470286	-0.866361
85.000000	65.000000	20.000000	-0.602040	0.220532	0.767407
85.000000	65.000000	25.000000	0.582694	-0.505432	0.636401
85.000000	65.000000	30.000000	-0.504747	0.776328	0.377551
85.000000	65.000000	35.000000	0.925430	0.200931	-0.321256
85.000000	65.000000	40.000000	0.073709	0.760745	0.644852
85.000000	65.000000	45.000000	-0.153222	0.689400	0.707991
85.000000	65.000000	50.000000	-0.000442	0.988412	0.151796
85.000000	65.000000	55.000000	0.228348	-0.848528	-0.477344
85.000000	65.000000	60.000000	-0.473365	0.104615	-0.874632
85.000000	65.000000	65.000000	-0.014910	0.968486	-0.248623
85.000000	65.000000	70.000000	0.926259	-0.274855	0.257873
85.000000	65.000000	75.000000	0.004597	-0.474146	0.880434
85.000000	70.000000	0.000000	0.953119	-0.269164	-0.138257
85.000000	70.000000	5.000000	0.887483	0.460394	-0.020256
85.000000	70.000000	10.000000	0.083187	-0.649498	-0.755799
85.000000	70.000000	15.000000	0.454532	-0.361425	-0.814109
85.000000	70.000000	20.000000	-0.874670	0.336832	0.348563
85.000000	70.000000	25.000000	-0.960764	-0.124645	0.247781
85.000000	70.000000	30.000000	-0.931953	-0.331718	-0.146382
85.000000	70.000000	35.000000	-0.846271	0.389825	-0.363128
85.000000	70.000000	40.000000	-0.565154	-0.822719	-0.061107
85.000000	70.000000	45.000000	0.848529	0.518890	0.103694
85.000000	70.000000	50.000000	0.148440	0.988561	-0.026690
85.000000	70.000000	55.000000	0.498746	0.222011	-0.837832
85.000000	70.000000	60.000000	-0.198761	-0.135224	-0.970674
85.000000	70.000000	65.000000	0.559599	-0.213153	0.800884
85.000000	70.000000	70.000000	0.034926	-0.995383	-0.089398
85.000000	70.000000	75.000000	-0.740461	-0.571592	-0.353555
85.000000	75.000000	0.000000	0.503028	0.571135	0.648666
85.000000	75.000000	5.000000	0.146506	0.788220	0.597700
85.000000	75.000000	10.000000	-0.703176	0.411253	0.580013
85.000000	75.000000	15.000000	-0.788349	-0.603442	-0.119847
85.000000	75.000000	20.000000	-0.749940	0.660101	-0.043091
85.000000	75.000000	25.000000	0.786906	-0.569309	0.238049
85.000000	75.000000	30.000000	-0.402946	0.908205	0.113132
85.000000	75.000000	35.000000	0.471509	-0.605708	-0.640934
85.000000	75.000000	40.000000	-0.565719	-0.739249	0.365340
85.000000	75.000000	45.000000	-0.199619	-0.901758	-0.383385
85.000000	75.000000	50.000000	0.402283	0.822039	0.403013
85.000000	75.000000	55.000000	0.656068	-0.640994	0.398373
85.000000	75.000000	60.000000	-0.986080	-0.017171	-0.165383
85.000000	75.000000	65.000000	0.139167	0.617183	-0.774414
85.000000	75.000000	70.000000	-0.984155	-0.064030	0.165344
85.000000	75.000000	75.000000	-0.272976	-0.270858	-0.923104
85.000000	80.000000	0.000000	0.743825	0.647779	0.164639
85.000000	80.000000	5.000000	0.956598	0.277035	-0.090397
85.000000	80.000000	10.000000	0.214159	0.963214	-0.162343
85.000000	80.000000	15.000000	0.797288	-0.521898	-0.303239
85.000000	80.000000	20.000000	-0.637995	0.515424	0.572102
85.000000	80.000000	25.000000	0.428154	-0.610379	0.666425
85.000000	80.000000	30.000000	-0.466878	-0.355449	-0.809742
85.000000	80.000000	35.000000	-0.745725	-0.516589	0.420749
85.000000	80.000000	40.000000	-0.295071	-0.177687	-0.938808
85.000000	80.000000	45.000000	-0.163127	-0.691777	0.703445
85.000000	80.000000	50.000000	-0.603933	-0.099837	0.790757
85.000000	80.000000	55.000000	0.494801	0.612955	-0.616002
85.000000	80.000000	60.000000	-0.608960	0.492518	-0.621766
85.000000	80.000000	65.000000	-0.718489	-0.534565	-0.444987
85.000000	80.000000	70.000000	0.704409	-0.512254	-0.491328
85.000000	80.000000	75.000000	0.624673	0.461344	0.630035
85.000000	85.000000	0.000000	0.977049	-0.091118	-0.192541
85.000000	85.000000	5.000000	0.127637	-0.821487	-0.555759
85.000000	85.000000	10.000000	-0.481025	0.524272	0.702676
85.000000	85.000000	15.000000	-0.506421	-0.748683	-0.427798
85.000000	85.000000	20.000000	0.007304	-0.419061	-0.907929
85.000000	85.000000	25.000000	0.141662	-0.309528	0.940279
85.000000	85.000000	30.000000	0.001854	-0.595948	0.803021
85.000000	85.000000	35.000000	-0.139979	0.504091	-0.852231
85.000000	85.000000	40.000000	-0.484245	-0.867801	-0.111484
85.000000	85.000000	45.000000	-0.954805	-0.165125	0.247148
85.000000	85.000000	50.000000	-0.537374	-0.781912	0.315978
85.000000	85.000000	55.000000	-0.981698	0.131180	-0.138058
85.000000	85.000000	60.000000	-0.489668	0.384571	-0.782515
85.000000	85.000000	65.000000	0.218805	-0.200093	0.955032
85.000000	85.000000	70.000000	0.647864	0.678164	0.346939
85.000000	85.000000	75.000000	0.649900	-0.594323	-0.473719
85.000000	90.000000	0.000000	0.441785	-0.657983	0.609823
85.000000	90.000000	5.000000	0.460770	0.677617	-0.573173
85.000000	90.000000	10.000000	0.706626	0.126297	-0.696224
85.000000	90.000000	15.000000	0.628775	-0.596654	-0.498644
85.000000	90.000000	20.000000	-0.260804	0.318807	-0.911232
85.000000	90.000000	25.000000	-0.956865	-0.229921	-0.177608
85.000000	90.000000	30.000000	-0.319630	0.918191	0.234014
85.000000	90.000000	35.000000	-0.368297	-0.653998	-0.660790
85.000000	90.000000	40.000000	0.628380	-0.734956	0.254907
85.000000	90.000000	45.000000	0.107687	-0.702671	0.703319
85.000000	90.000000	50.000000	-0.957761	-0.286076	-0.029227
85.000000	90.000000	55.000000	0.605332	0.595800	-0.527822
85.000000	90.000000	60.000000	0.879366	0.268860	-0.392975
85.000000	90.000000	65.000000	-0.263873	-0.544480	0.796186
85.000000	90.000000	70.000000	-0.969225	-0.217957	-0.114448
85.000000	90.000000	75.000000	0.705118	0.421395	0.570293
85.000000	95.000000	0.000000	-0.307334	0.305707	-0.901160
85.000000	95.000000	5.000000	0.017175	-0.269597	0.962820
85.000000	95.000000	10.000000	-0.937316	-0.214229	-0.274855
85.000000	95.000000	15.000000	-0.196558	0.796318	0.572051
85.000000	95.000000	20.000000	-0.199446	0.959409	0.199388
85.000000	95.000000	25.000000	0.786735	-0.545181	0.289527
85.000000	95.000000	30.000000	0.671475	0.703259	0.233558
85.000000	95.000000	35.000000	0.910644	0.006253	-0.413145
85.000000	95.000000	40.000000	0.264816	-0.732546	-0.627096
85.000000	95.000000	45.000000	0.102257	-0.669401	-0.735830
85.000000	95.000000	50.000000	-0.158724	0.670361	0.724861
85.000000	95.000000	55.000000	-0.237565	-0.471579	0.849221
85.000000	95.000000	60.000000	0.860546	-0.482253	0.163988
85.000000	95.000000	65.000000	0.764105	-0.138186	-0.630117
85.000000	95.000000	70.000000	-0.885847	0.448055	-0.120506
85.000000	95.000000	75.000000	-0.689478	-0.693663	-0.208450
85.000000	100.000000	0.000000	-0.521625	-0.295251	0.800459
85.000000	100.000000	5.000000	-0.250288	0.689293	-0.679876
85.000000	100.000000	10.000000	0.322086	0.361721	0.874882
85.000000	100.000000	15.000000	0.196896	-0.973711	-0.114540
85.000000	100.000000	20.000000	-0.723188	-0.518556	0.456178
85.000000	100.000000	25.000000	0.734697	-0.401419	-0.546885
85.000000	100.000000	30.000000	0.885423	0.019697	0.464368
85.000000	100.000000	35.000000	0.927202	-0.315000	0.202663
85.000000	100.000000	40.000000	-0.680311	0.280691	-0.677045
85.000000	100.000000	45.000000	-0.936441	0.080099	-0.341560
85.000000	100.000000	50.000000	0.338992	-0.491523	0.802178
85.000000	100.000000	55.000000	-0.427461	-0.619965	-0.657967
85.000000	100.000000	60.000000	0.393799	-0.233201	-0.889123
85.000000	100.000000	65.000000	0.849445	0.366092	-0.380027
85.000000	100.000000	70.000000	0.572026	0.820056	-0.017184
85.000000	100.000000	75.000000	-0.214627	0.517108	-0.828574
85.000000	105.000000	0.000000	0.561583	0.099233	-0.821449
85.000000	105.000000	5.000000	0.471971	-0.123238	0.872958
85.000000	105.000000	10.000000	-0.385077	0.647981	-0.657142
85.000000	105.000000	15.000000	-0.027720	0.706278	-0.707391
85.000000	105.000000	20.000000	0.910789	0.340191	0.233951
85.000000	105.000000	25.000000	0.793068	-0.509941	-0.333172
85.000000	105.000000	30.000000	-0.627563	0.156644	-0.762645
85.000000	105.000000	35.000000	-0.217344	-0.826638	-0.519068
85.000000	105.000000	40.000000	-0.375316	-0.799596	0.468811
85.000000	105.000000	45.000000	-0.705205	0.423076	0.568940
85.000000	105.000000	50.000000	0.434400	0.812398	-0.388980
85.000000	105.000000	55.000000	-0.695897	-0.113740	-0.709078
85.000000	105.000000	60.000000	0.770390	0.341941	-0.538123
85.000000	105.000000	65.000000	0.552505	-0.508675	0.660294
85.000000	105.000000	70.000000	0.483134	-0.225683	0.845960
85.000000	105.000000	75.000000	0.998378	0.053330	0.019913
85.000000	110.000000	0.000000	0.463212	-0.788916	0.403789
85.000000	110.000000	5.000000	0.777195	0.346042	0.525569
85.000000	110.000000	10.000000	-0.486944	-0.089741	-0.868811
85.000000	110.000000	15.000000	-0.876382	0.318972	-0.360849
85.000000	110.000000	20.000000	-0.741312	-0.390388	0.545942
85.000000	110.000000	25.000000	0.804594	0.245607	0.540654
85.000000	110.000000	30.000000	-0.781250	0.103437	0.615588
85.000000	110.000000	35.000000	0.918689	-0.006206	-0.394934
85.000000	110.000000	40.000000	0.879447	0.133292	0.456953
85.000000	110.000000	45.000000	0.738697	0.559327	-0.376137
85.000000	110.000000	50.000000	-0.488047	-0.772977	0.405360
85.000000	110.000000	55.000000	-0.083400	0.300075	-0.950263
85.000000	110.000000	60.000000	-0.554893	0.566274	-0.609449
85.000000	110.000000	65.000000	-0.516752	-0.263881	-0.814453
85.000000	110.000000	70.000000	0.279654	0.688617	0.669030
85.000000	115.000000	0.000000	0.708080	0.624399	0.329770
85.000000	115.000000	5.000000	-0.523530	-0.796995	-0.301189
85.000000	115.000000	10.000000	-0.626136	0.701354	0.340670
85.000000	115.000000	15.000000	0.976264	-0.195941	0.092284
85.000000	115.000000	20.000000	-0.002740	0.972167	0.234273
85.000000	115.000000	25.000000	-0.404195	-0.598824	-0.691402
85.000000	115.000000	30.000000	-0.125793	0.761257	0.636132
85.000000	115.000000	35.000000	-0.557267	-0.497754	-0.664600
85.000000	115.000000	40.000000	0.878188	0.414778	0.238210
85.000000	115.000000	45.000000	0.884493	-0.074932	-0.460496
85.000000	115.000000	50.000000	0.102968	-0.946521	-0.305772
85.000000	115.000000	55.000000	-0.551598	0.761793	-0.339722
85.000000	115.000000	60.000000	-0.037307	0.147301	0.988388
85.000000	115.000000	65.000000	-0.801600	0.268270	0.534292
85.000000	115.000000	70.000000	0.489028	0.676314	0.550863
85.000000	120.000000	0.000000	-0.476682	-0.530430	0.701012
85.000000	120.000000	5.000000	-0.551597	-0.237568	-0.799564
85.000000	120.000000	10.000000	0.055599	-0.864402	-0.499718
85.000000	120.000000	15.000000	0.145381	-0.866161	-0.478153
85.000000	120.000000	20.000000	-0.666605	-0.529506	0.524653
85.000000	120.000000	25.000000	0.366668	-0.859955	0.355010
85.000000	120.000000	30.000000	-0.682684	-0.728754	0.053484
85.000000	120.000000	35.000000	0.236370	-0.849239	-0.472146
85.000000	120.000000	40.000000	0.186271	-0.575827	0.796069
85.000000	120.000000	45.000000	0.202012	-0.056875	-0.977730
85.000000	120.000000	50.000000	0.767957	-0.003965	-0.640489
85.000000	120.000000	55.000000	0.623422	-0.727125	-0.287461
85.000000	120.000000	60.000000	-0.222661	-0.211417	0.951696
85.000000	120.000000	65.000000	-0.435076	0.900040	0.025222
85.000000	125.000000	0.000000	-0.923924	-0.282075	-0.258455
85.000000	125.000000	5.000000	0.954419	-0.282789	-0.095467
85.000000	125.000000	10.000000	-0.042746	-0.913472	0.404650
85.000000	125.000000	15.000000	-0.317213	0.939512	-0.129201
85.000000	125.000000	20.000000	0.818536	0.341122	0.462207
85.000000	125.000000	25.000000	-0.129428	-0.741667	0.658163
85.000000	125.000000	30.000000	0.556177	-0.724349	0.407413
85.000000	125.000000	35.000000	-0.038406	-0.485978	-0.873127
85.000000	125.000000	40.000000	0.343032	-0.936676	0.070475
85.000000	125.000000	45.000000	-0.411681	0.096967	0.906154
85.000000	125.000000	50.000000	-0.089494	0.861728	-0.499415
85.000000	125.000000	55.000000	-0.310504	0.315165	0.896804
85.000000	125.000000	60.000000	0.507859	0.030251	-0.860909
85.000000	125.000000	65.000000	-0.237961	-0.047237	0.970125
85.000000	130.000000	0.000000	0.165744	-0.278943	0.945896
85.000000	130.000000	5.000000	0.430274	0.619471	-0.656598
85.000000	130.000000	10.000000	-0.247814	0.388526	0.887489
85.000000	130.000000	15.000000	0.092425	-0.696527	0.711553
85.000000	130.000000	20.000000	0.811704	-0.303023	-0.499313
85.000000	130.000000	25.000000	-0.080250	0.986604	-0.142033
85.000000	130.000000	30.000000	0.772336	0.224990	-0.594034
85.000000	130.000000	35.000000	-0.466860	-0.471917	0.747888
85.000000	130.000000	40.000000	-0.026598	0.776988	0.628953
85.000000	130.000000	45.000000	-0.258324	0.943290	-0.208499
85.000000	130.000000	50.000000	-0.938861	-0.341167	-0.046322
85.000000	130.000000	55.000000	0.232756	-0.895975	-0.378223
85.000000	130.000000	60.000000	0.056806	-0.061485	-0.996490
85.000000	135.000000	0.000000	0.499328	0.865298	0.043953
85.000000	135.000000	5.000000	0.153251	-0.741910	-0.652751
85.000000	135.000000	10.000000	0.206223	0.157034	0.965822
85.000000	135.000000	15.000000	-0.410507	-0.194564	0.890858
85.000000	135.000000	20.000000	-0.629069	-0.754506	-0.187065
85.000000	135.000000	25.000000	-0.512956	-0.365326	0.776797
85.000000	135.000000	30.000000	0.015373	0.964408	0.263972
85.000000	135.000000	35.000000	0.568996	-0.239176	-0.786790
85.000000	135.000000	40.000000	0.319172	-0.919300	0.230253
85.000000	135.000000	45.000000	-0.228208	-0.383940	-0.894713
85.000000	135.000000	50.000000	-0.478883	0.856086	0.194393
85.000000	135.000000	55.000000	-0.302061	0.625238	-0.719609
85.000000	140.000000	0.000000	-0.875365	0.468968	-0.117497
85.000000	140.000000	5.000000	0.812422	0.556580	-0.173749
85.000000	140.000000	10.000000	-0.475513	-0.852957	0.215295
85.000000	140.000000	15.000000	0.637965	0.455859	0.620639
85.000000	140.000000	20.000000	0.008863	0.794334	-0.607417
85.000000	140.000000	25.000000	0.987920	0.007725	-0.154774
85.000000	140.000000	30.000000	0.282972	0.843478	-0.456587
85.000000	140.000000	35.000000	-0.733666	0.481380	-0.479591
85.000000	140.000000	40.000000	0.729045	0.056239	-0.682152
85.000000	140.000000	45.000000	-0.779346	0.626592	-0.001481
85.000000	140.000000	50.000000	-0.083350	-0.588686	0.804053
85.000000	145.000000	0.000000	0.480445	-0.470803	-0.739944
85.000000	145.000000	5.000000	-0.394158	0.655949	-0.643716
85.000000	145.000000	10.000000	-0.763379	-0.537834	-0.357753
85.000000	145.000000	15.000000	-0.897841	-0.411063	0.157824
85.000000	145.000000	20.000000	0.311081	0.943322	0.115637
85.000000	145.000000	25.000000	-0.074578	0.176627	-0.981448
85.000000	145.000000	30.000000	-0.611014	0.716632	-0.336305
85.000000	145.000000	35.000000	-0.323036	0.778326	-0.538383
85.000000	145.000000	40.000000	0.353160	-0.931689	0.085049
85.000000	145.000000	45.000000	-0.221125	0.505850	0.833798
85.000000	150.000000	0.000000	-0.638582	-0.744603	-0.194369
85.000000	150.000000	5.000000	-0.126796	-0.946242	0.297573
85.000000	150.000000	10.000000	0.469631	0.871965	-0.138290
85.000000	150.000000	15.000000	-0.295854	0.164773	0.940915
85.000000	150.000000	20.000000	-0.984387	0.100403	0.144574
85.000000	150.000000	25.000000	-0.274821	0.449312	-0.850054
85.000000	150.000000	30.000000	0.843508	-0.536700	0.021145
85.000000	150.000000	35.000000	-0.586365	0.797544	-0.141772
85.000000	155.000000	0.000000	0.055298	0.902546	-0.427028
85.000000	155.000000	5.000000	0.344038	0.128618	0.930105
85.000000	155.000000	10.000000	-0.461542	-0.411480	0.785916
85.000000	155.000000	15.000000	-0.089939	-0.310324	0.946367
85.000000	155.000000	20.000000	-0.934791	0.296236	-0.195983
85.000000	155.000000	25.000000	-0.869165	-0.402205	-0.287721
90.000000	5.000000	0.000000	-0.626153	0.132112	0.768426
90.000000	5.000000	5.000000	0.136855	-0.981026	0.137329
90.000000	5.000000	10.000000	-0.738122	-0.252239	0.625741
90.000000	5.000000	15.000000	0.769558	0.624481	0.133429
90.000000	5.000000	20.000000	0.843933	0.294315	0.448503
90.000000	5.000000	25.000000	0.372451	-0.811090	-0.451014
90.000000	10.000000	0.000000	-0.049196	0.390366	0.919345
90.000000	10.000000	5.000000	-0.341547	0.697826	0.629591
90.000000	10.000000	10.000000	-0.142971	-0.884578	0.443938
90.000000	10.000000	15.000000	0.219695	-0.849863	0.479028
90.000000	10.000000	20.000000	0.166835	-0.835662	0.523292
90.000000	10.000000	25.000000	-0.570748	0.408444	0.712334
90.000000	10.000000	30.000000	-0.783208	-0.430289	-0.448817
90.000000	10.000000	35.000000	-0.756639	-0.565679	0.327879
90.000000	15.000000	0.000000	-0.837967	0.480347	0.258996
90.000000	15.000000	5.000000	-0.811187	0.557038	0.178001
90.000000	15.000000	10.000000	-0.292084	-0.403549	-0.867084
90.000000	15.000000	15.000000	-0.307380	-0.811397	-0.497144
90.000000	15.000000	20.000000	-0.230760	0.445837	0.864858
90.000000	15.000000	25.000000	-0.971657	-0.219650	0.087386
90.000000	15.000000	30.000000	0.637608	-0.057047	0.768246
90.000000	15.000000	35.000000	0.531338	0.375283	-0.759502
90.000000	15.000000	40.000000	-0.533480	-0.514492	-0.671340
90.000000	15.000000	45.000000	0.590461	-0.304263	-0.747516
90.000000	20.000000	0.000000	0.190544	0.679181	-0.708806
90.000000	20.000000	5.000000	-0.093043	0.714595	-0.693323
90.000000	20.000000	10.000000	0.128944	0.528123	0.839321
90.000000	20.000000	15.000000	-0.787895	0.612155	0.066993
90.000000	20.000000	20.000000	-0.356789	0.281303	-0.890825
90.000000	20.000000	25.000000	0.621730	-0.345995	-0.702666
90.000000	20.000000	30.000000	0.083368	0.931138	0.355010
90.000000	20.000000	35.000000	0.204834	0.642616	0.738300
90.000000	20.000000	40.000000	0.075043	-0.928293	-0.364198
90.000000	20.000000	45.000000	-0.186573	0.603133	0.775513
90.000000	20.000000	50.000000	0.386169	-0.878791	-0.280358
90.000000	25.000000	0.000000	0.793016	0.495277	-0.354720
90.000000	25.000000	5.000000	0.864786	-0.501618	0.022907
90.000000	25.000000	10.000000	-0.719997	0.346033	0.601553
90.000000	25.000000	15.000000	-0.876388	-0.423481	0.229363
90.000000	25.000000	20.000000	-0.772458	0.259049	-0.579830
90.000000	25.000000	25.000000	-0.352845	-0.919293	0.174355
90.000000	25.000000	30.000000	-0.103228	-0.534744	0.838685
90.000000	25.000000	35.000000	-0.894330	-0.013764	-0.447197
90.000000	25.000000	40.000000	0.074926	0.168583	-0.982836
90.000000	25.000000	45.000000	0.353421	-0.507931	-0.785557
90.000000	25.000000	50.000000	-0.427925	0.418686	-0.800988
90.000000	25.000000	55.000000	-0.157742	-0.948747	0.273856
90.000000	30.000000	0.000000	-0.588470	0.751903	0.297230
90.000000	30.000000	5.000000	0.433978	0.850620	-0.296832
90.000000	30.000000	10.000000	0.384324	0.420559	0.821843
90.000000	30.000000	15.000000	-0.458248	0.536038	0.708994
90.000000	30.000000	20.000000	0.004911	-0.627616	-0.778507
90.000000	30.000000	25.000000	-0.522546	-0.306177	-0.795740
90.000000	30.000000	30.000000	-0.938795	0.003734	0.344456
90.000000	30.000000	35.000000	-0.751300	-0.658942	-0.036664
90.000000	30.000000	40.000000	-0.854823	-0.013177	0.518753
90.000000	30.000000	45.000000	0.998325	0.038427	-0.043253
90.000000	30.000000	50.000000	0.146533	-0.918314	-0.367732
90.000000	30.000000	55.000000	0.509855	0.825558	-0.241872
90.000000	30.000000	60.000000	0.971878	-0.234256	-0.024022
90.000000	35.000000	0.000000	-0.401395	0.590744	-0.699931
90.000000	35.000000	5.000000	0.700366	0.691785	0.175842
90.000000	35.000000	10.000000	0.333905	-0.935442	-0.115996
90.000000	35.000000	15.000000	0.216682	-0.324446	0.920752
90.000000	35.000000	20.000000	-0.305320	-0.076731	-0.949153
90.000000	35.000000	25.000000	-0.816437	0.172417	0.551093
90.000000	35.000000	30.000000	0.540883	-0.702531	0.462488
90.000000	35.000000	35.000000	0.302925	-0.899286	-0.315470
90.000000	35.000000	40.000000	0.052794	0.874209	-0.482670
90.000000	35.000000	45.000000	0.458457	-0.191603	0.867816
90.000000	35.000000	50.000000	0.256457	0.963376	-0.078342
90.000000	35.000000	55.000000	0.133565	0.962476	-0.236220
90.000000	35.000000	60.000000	-0.723188	-0.681674	0.110993
90.000000	35.000000	65.000000	0.600832	-0.799286	-0.011984
90.000000	40.000000	0.000000	0.628271	-0.569290	0.530268
90.000000	40.000000	5.000000	-0.207037	-0.961351	-0.181495
90.000000	40.000000	10.000000	-0.011547	0.237237	-0.971383
90.000000	40.000000	15.000000	-0.593629	0.790163	0.152468
90.000000	40.000000	20.000000	-0.261412	0.485689	0.834128
90.000000	40.000000	25.000000	-0.311259	0.326319	0.892543
90.000000	40.000000	30.000000	0.814173	0.459532	-0.354899
90.000000	40.000000	35.000000	-0.829269	-0.448030	0.334040
90.000000	40.000000	40.000000	0.449750	0.742630	-0.496211
90.000000	40.000000	45.000000	-0.016406	-0.868018	-0.496261
90.000000	40.000000	50.000000	0.664532	0.087313	0.742141
90.000000	40.000000	55.000000	-0.031901	-0.641611	-0.766366
90.000000	40.000000	60.000000	-0.647886	-0.734940	0.200268
90.000000	40.000000	65.000000	0.712740	-0.527292	-0.462563
90.000000	45.000000	0.000000	0.940582	0.018301	-0.339072
90.000000	45.000000	5.000000	-0.714138	-0.479504	0.509984
90.000000	45.000000	10.000000	0.178907	0.926158	-0.331998
90.000000	45.000000	15.000000	0.820224	-0.240601	-0.518984
90.000000	45.000000	20.000000	0.206346	0.950167	-0.233673
90.000000	45.000000	25.000000	-0.510224	0.329095	0.794587
90.000000	45.000000	30.000000	0.220316	0.760218	-0.611170
90.000000	45.000000	35.000000	0.772948	0.602051	0.200216
90.000000	45.000000	40.000000	0.390227	0.691728	-0.607647
90.000000	45.000000	45.000000	0.322023	-0.942616	0.088181
90.000000	45.000000	50.000000	-0.078065	0.596689	-0.798667
90.000000	45.000000	55.000000	0.954406	0.148522	0.258942
90.000000	45.000000	60.000000	0.670119	-0.051015	-0.740499
90.000000	45.000000	65.000000	0.173462	-0.722396	-0.669369
90.000000	45.000000	70.000000	0.845346	0.471366	-0.251404
90.000000	50.000000	0.000000	-0.853745	-0.411262	-0.319348
90.000000	50.000000	5.000000	-0.184094	-0.981312	0.055995
90.000000	50.000000	10.000000	0.507712	-0.855706	0.099976
90.000000	50.000000	15.000000	0.522149	-0.849140	-0.079510
90.000000	50.000000	20.000000	0.424719	-0.902858	-0.066796
90.000000	50.000000	25.000000	0.633687	0.597105	-0.491841
90.000000	50.000000	30.000000	-0.739838	-0.599492	-0.305366
90.000000	50.000000	35.000000	-0.253273	-0.014932	-0.967280
90.000000	50.000000	40.000000	0.303757	0.277391	0.911475
90.000000	50.000000	45.000000	-0.087327	-0.822404	-0.562161
90.000000	50.000000	50.000000	0.358543	0.436388	-0.825235
90.000000	50.000000	55.000000	0.397405	0.426615	0.812446
90.000000	50.000000	60.000000	-0.001229	0.824442	-0.565945
90.000000	50.000000	65.000000	-0.468389	0.336817	0.816802
90.000000	50.000000	70.000000	0.131821	0.959573	-0.248683
90.000000	55.000000	0.000000	-0.845399	0.339222	0.412589
90.000000	55.000000	5.000000	-0.369970	0.831023	0.415359
90.000000	55.000000	10.000000	0.042458	0.957525	0.285208
90.000000	55.000000	15.000000	-0.293424	0.941126	-0.167883
90.000000	55.000000	20.000000	-0.380238	0.841404	-0.384004
90.000000	55.000000	25.000000	0.040009	0.990247	-0.133458
90.000000	55.000000	30.000000	-0.019256	-0.201030	-0.979396
90.000000	55.000000	35.000000	-0.319489	-0.281003	-0.904966
90.000000	55.000000	40.000000	-0.967540	-0.234013	0.095420
90.000000	55.000000	45.000000	-0.829658	0.497422	-0.253456
90.000000	55.000000	50.000000	0.204472	0.667557	-0.715932
90.000000	55.000000	55.000000	0.377306	-0.288059	-0.880149
90.000000	55.000000	60.000000	0.768439	0.436185	-0.468236
90.000000	55.000000	65.000000	-0.037973	0.569628	0.821025
90.000000	55.000000	70.000000	0.617906	-0.691292	0.374577
90.000000	55.000000	75.000000	0.510763	-0.311203	0.801420
90.000000	60.000000	0.000000	-0.883032	0.420294	0.208824
90.000000	60.000000	5.000000	-0.369233	0.748118	0.551350
90.000000	60.000000	10.000000	-0.029491	0.806790	-0.590102
90.000000	60.000000	15.000000	0.098401	0.960519	-0.260233
90.000000	60.000000	20.000000	0.912904	0.145609	0.381319
90.000000	60.000000	25.000000	0.864172	0.273350	-0.422477
90.000000	60.000000	30.000000	0.294179	-0.947405	0.126029
90.000000	60.000000	35.000000	-0.099593	0.990041	-0.099495
90.000000	60.000000	40.000000	0.351468	0.715267	-0.604040
90.000000	60.000000	45.000000	0.539543	0.347036	0.767111
90.000000	60.000000	50.000000	0.165438	-0.962555	-0.214752
90.000000	60.000000	55.000000	0.006191	-0.684571	-0.728920
90.000000	60.000000	60.000000	-0.620689	-0.237085	-0.747353
90.000000	60.000000	65.000000	-0.391871	0.632602	-0.668021
90.000000	60.000000	70.000000	0.786517	-0.592658	-0.173631
90.000000	60.000000	75.000000	0.740097	0.581138	-0.338428
