69.634305	-7.600495	38.643189	0.196475	-0.979806	-0.037107
-51.237311	2.517173	61.387310	-0.995886	0.083385	0.035461
35.979979	-27.304644	66.029520	-0.149141	-0.005308	0.988802
5.960536	2.706380	79.731722	0.260052	0.543777	-0.797922
-18.054818	63.430344	45.283717	0.189579	-0.715112	-0.672811
-53.628787	57.909847	13.053843	-0.974000	-0.072122	0.214760
59.004314	-52.967689	10.626141	-0.383652	0.879956	0.280159
-69.602000	-32.371740	22.530692	0.431492	0.823935	-0.367350
11.890734	-79.110700	0.327950	0.659975	-0.197872	-0.724762
36.845109	-47.266843	52.993240	0.216181	0.504460	0.835934
64.521955	23.082450	41.280962	0.996272	-0.085783	-0.009161
-17.860059	45.682002	63.199470	0.999666	0.019511	0.016954
53.067877	-55.981555	21.210044	-0.312400	-0.437433	0.843243
46.586488	20.519126	61.714379	-0.784376	-0.462226	0.413643
-48.448549	-5.423179	63.429703	0.949778	-0.154418	0.272171
71.997575	34.038464	7.598167	0.661253	-0.674742	-0.327822
77.557812	15.783068	11.648202	-0.521891	0.000495	-0.853012
15.848694	31.193319	71.943003	-0.717982	-0.668563	0.193714
-58.770569	-11.648602	53.012548	0.134362	-0.824672	0.549420
-47.494202	64.241373	4.164938	0.809146	-0.103537	-0.578414
5.866007	79.227131	9.415500	0.238672	0.956896	-0.165487
20.681049	62.309205	45.714956	0.498375	0.083932	-0.862889
-33.559265	-0.158649	72.620593	-0.087299	-0.080183	0.992950
60.775913	40.470808	32.686420	0.060497	-0.768748	-0.636684
53.584499	-19.708654	56.038116	0.022880	0.456694	0.889329
70.299613	26.559259	27.433012	-0.286880	0.716400	-0.635981
51.293606	29.402876	53.892827	0.495240	0.290832	0.818629
2.095469	79.449093	9.135134	-0.870603	0.306902	0.384528
7.247644	-51.531465	60.761664	0.793715	0.397699	-0.460273
5.311564	54.628017	58.202809	0.423971	-0.752784	-0.503552
20.118878	10.797037	76.672386	-0.294004	0.559976	0.774589
-52.952951	-12.105050	58.732041	-0.853409	0.277577	0.441184
1.580742	76.252446	24.146755	-0.929325	0.349489	0.119216
-66.779658	-15.983695	41.048737	0.880413	0.472464	0.040620
31.303730	71.121021	19.023062	-0.164391	-0.349521	0.922394
13.525783	75.497731	22.740839	0.132540	0.806203	0.576603
52.124034	-60.638000	2.473486	-0.594280	0.382897	0.707263
11.297922	-72.716543	31.379314	0.834505	-0.310023	0.455507
-30.023033	-69.824567	24.962920	0.663655	0.136685	-0.735445
49.495984	-55.034713	30.353385	-0.750733	-0.541604	0.378240
-39.667143	58.010550	38.226873	-0.755747	0.307403	0.578229
70.015271	37.996485	7.357243	-0.740835	0.018017	0.671445
-60.779631	-40.083583	33.153323	-0.524564	-0.639810	0.561672
71.705874	24.287244	25.853384	-0.508820	0.835347	-0.208082
7.815311	36.415067	70.801581	-0.818411	0.483569	0.310425
-63.510755	-11.341148	47.304993	-0.245832	0.758051	-0.604091
41.522277	64.910380	21.506815	0.756243	-0.561703	-0.335540
-19.946946	-75.505643	17.349848	-0.262800	0.914791	-0.306746
-68.712373	5.307635	40.625593	0.914767	0.310519	-0.258418
-26.669038	66.240579	36.068657	0.482148	-0.216973	-0.848797
-19.362205	-69.158120	35.245702	-0.582965	-0.175365	0.793347
29.837658	74.189023	2.388108	-0.172959	-0.225942	0.958663
-43.853000	-10.543537	66.073809	0.345049	0.324441	0.880727
43.558605	45.101525	49.684005	-0.876250	-0.335509	0.345860
6.587409	51.507937	60.856704	0.508466	0.699239	0.502521
16.094033	23.076203	74.889726	-0.551104	-0.451759	0.701569
-13.066127	23.091293	75.472303	-0.059190	-0.822356	0.565887
-63.184794	-12.771522	47.376893	-0.550695	-0.493336	-0.673317
-38.890318	-67.267844	19.041542	0.870264	-0.151271	0.468783
67.571541	36.319960	22.692452	0.422593	-0.888344	-0.179612
-61.049633	-32.451818	40.247010	-0.368901	-0.623704	-0.689134
-67.335905	-39.592796	17.270973	0.060345	0.151297	0.986645
23.256193	-38.118508	66.378677	-0.181135	0.925079	-0.333795
-4.852774	-77.981379	17.185898	-0.720960	0.629391	-0.289971
-65.751814	-45.202238	5.784173	0.384867	0.890953	-0.240998
28.162778	-12.657118	73.801459	0.468287	0.523732	-0.711626
55.333237	-27.267210	50.938514	-0.703596	0.705655	-0.083694
11.082050	-54.884518	57.139109	0.176453	0.978749	-0.104470
71.128407	-36.592600	1.315782	-0.410150	-0.907896	0.086609
-7.287927	79.665394	0.557736	-0.070019	-0.367652	-0.927324
30.881255	-36.954646	63.880374	0.040243	0.982991	-0.179191
-14.461931	-40.616763	67.387915	0.129634	0.855450	-0.501398
-50.855174	55.855223	26.342842	-0.068372	0.649415	-0.757354
-2.489058	63.381835	48.749847	-0.369403	-0.818268	-0.440430
-33.049650	38.543207	61.823473	-0.796581	-0.468658	0.381862
38.061060	68.707790	15.185366	-0.399651	-0.913994	0.069961
-53.066366	59.796059	2.896914	0.471837	0.874032	-0.115921
25.204510	-53.984968	53.388725	-0.240577	0.957865	-0.156899
-23.615345	-15.507498	74.845394	-0.476198	0.845026	0.243242
44.436454	13.638408	65.110640	-0.615037	-0.769968	-0.169937
-39.044165	1.240352	69.814144	-0.738191	-0.121041	0.663644
37.897114	70.441392	1.348711	-0.776574	-0.579105	-0.248133
19.147821	-54.820239	55.028196	-0.455024	-0.288121	0.842579
12.985952	-74.010975	27.454339	0.546274	0.607986	-0.576141
63.112051	7.115806	48.643954	-0.289725	0.476888	0.829842
6.979612	68.428803	40.850751	-0.302579	-0.718108	-0.626712
56.897727	50.723267	24.285774	0.492578	-0.638574	-0.591261
34.181376	-11.023568	71.485065	-0.696801	-0.025818	-0.716799
43.577236	66.381500	9.722187	0.375630	-0.898678	0.226450
63.357041	46.566564	14.745863	0.841658	-0.534847	0.074498
-2.803637	-50.913597	61.643696	0.824969	0.552060	-0.121064
-68.605604	-40.892167	4.593676	-0.870590	0.346590	0.349212
38.213632	34.872650	61.021444	0.498978	-0.843417	-0.199168
-71.629612	-34.671170	8.191989	0.835011	-0.544026	0.082410
-59.416366	35.442457	40.168740	0.108302	0.969318	-0.220666
-37.555307	20.663006	67.547310	0.930126	-0.247203	-0.271580
-50.396239	-56.908001	24.933884	-0.815148	0.577410	-0.046177
-47.235547	27.003543	58.648203	-0.286662	-0.548224	-0.785669
8.402498	-79.266020	6.804121	0.002231	-0.220116	-0.975471
11.358881	-79.151684	2.446773	-0.313383	-0.291113	-0.903905
